
       10.86721603       1.25951830      13.97213490
       10.86721603       1.84540057      14.72908523
       10.86721603       1.84540057      13.21518457
       10.86721603       1.25951830      17.07705377
       10.86721603       1.84540057      17.83400410
       10.86721603       1.84540057      16.32010344
       10.86721603       1.25951830      20.18197263
       10.86721603       1.84540057      20.93892296
       10.86721603       1.84540057      19.42502231
       10.86721603       1.25951830      23.28689150
       10.86721603       1.84540057      24.04384183
       10.86721603       1.84540057      22.52994117
       10.86721603       4.36443716       1.55245943
       10.86721603       4.95031944       2.30940976
       10.86721603       4.95031944       0.79550911
       10.86721603       4.36443716       4.65737830
       10.86721603       4.95031944       5.41432863
       10.86721603       4.95031944       3.90042797
       10.86721603       4.36443716       7.76229717
       10.86721603       4.95031944       8.51924749
       10.86721603       4.95031944       7.00534684
       10.86721603       4.36443716      10.86721603
       10.86721603       4.95031944      11.62416636
       10.86721603       4.95031944      10.11026571
       10.86721603       4.36443716      13.97213490
       10.86721603       4.95031944      14.72908523
       10.86721603       4.95031944      13.21518457
       10.86721603       4.36443716      17.07705377
       10.86721603       4.95031944      17.83400410
       10.86721603       4.95031944      16.32010344
       10.86721603       4.36443716      20.18197263
       10.86721603       4.95031944      20.93892296
       10.86721603       4.95031944      19.42502231
       10.86721603       4.36443716      23.28689150
       10.86721603       4.95031944      24.04384183
       10.86721603       4.95031944      22.52994117
       10.86721603       7.46935603       1.55245943
       10.86721603       8.05523831       2.30940976
       10.86721603       8.05523831       0.79550911
       10.86721603       7.46935603       4.65737830
       10.86721603       8.05523831       5.41432863
       10.86721603       8.05523831       3.90042797
       10.86721603       7.46935603       7.76229717
       10.86721603       8.05523831       8.51924749
       10.86721603       8.05523831       7.00534684
       10.86721603       7.46935603      10.86721603
       10.86721603       8.05523831      11.62416636
       10.86721603       8.05523831      10.11026571
       10.86721603       7.46935603      13.97213490
       10.86721603       8.05523831      14.72908523
       10.86721603       8.05523831      13.21518457
       10.86721603       7.46935603      17.07705377
       10.86721603       8.05523831      17.83400410
       10.86721603       8.05523831      16.32010344
       10.86721603       7.46935603      20.18197263
       10.86721603       8.05523831      20.93892296
       10.86721603       8.05523831      19.42502231
       10.86721603       7.46935603      23.28689150
       10.86721603       8.05523831      24.04384183
       10.86721603       8.05523831      22.52994117
       10.86721603      10.57427490       1.55245943
       10.86721603      11.16015717       2.30940976
       10.86721603      11.16015717       0.79550911
       10.86721603      10.57427490       4.65737830
       10.86721603      11.16015717       5.41432863
       10.86721603      11.16015717       3.90042797
       10.86721603      10.57427490       7.76229717
       10.86721603      11.16015717       8.51924749
       10.86721603      11.16015717       7.00534684
       10.86721603      10.57427490      10.86721603
       10.86721603      11.16015717      11.62416636
       10.86721603      11.16015717      10.11026571
       10.86721603      10.57427490      13.97213490
       10.86721603      11.16015717      14.72908523
       10.86721603      11.16015717      13.21518457
       10.86721603      10.57427490      17.07705377
       10.86721603      11.16015717      17.83400410
       10.86721603      11.16015717      16.32010344
       10.86721603      10.57427490      20.18197263
       10.86721603      11.16015717      20.93892296
       10.86721603      11.16015717      19.42502231
       10.86721603      10.57427490      23.28689150
       10.86721603      11.16015717      24.04384183
       10.86721603      11.16015717      22.52994117
       10.86721603      13.67919376       1.55245943
       10.86721603      14.26507604       2.30940976
       10.86721603      14.26507604       0.79550911
       10.86721603      13.67919376       4.65737830
       10.86721603      14.26507604       5.41432863
       10.86721603      14.26507604       3.90042797
       10.86721603      13.67919376       7.76229717
       10.86721603      14.26507604       8.51924749
       10.86721603      14.26507604       7.00534684
       10.86721603      13.67919376      10.86721603
       10.86721603      14.26507604      11.62416636
       10.86721603      14.26507604      10.11026571
       10.86721603      13.67919376      13.97213490
       10.86721603      14.26507604      14.72908523
       10.86721603      14.26507604      13.21518457
       10.86721603      13.67919376      17.07705377
       10.86721603      14.26507604      17.83400410
       10.86721603      14.26507604      16.32010344
       10.86721603      13.67919376      20.18197263
       10.86721603      14.26507604      20.93892296
       10.86721603      14.26507604      19.42502231
       10.86721603      13.67919376      23.28689150
       10.86721603      14.26507604      24.04384183
       10.86721603      14.26507604      22.52994117
       10.86721603      16.78411263       1.55245943
       10.86721603      17.36999491       2.30940976
       10.86721603      17.36999491       0.79550911
       10.86721603      16.78411263       4.65737830
       10.86721603      17.36999491       5.41432863
       10.86721603      17.36999491       3.90042797
       10.86721603      16.78411263       7.76229717
       10.86721603      17.36999491       8.51924749
       10.86721603      17.36999491       7.00534684
       10.86721603      16.78411263      10.86721603
       10.86721603      17.36999491      11.62416636
       10.86721603      17.36999491      10.11026571
       10.86721603      16.78411263      13.97213490
       10.86721603      17.36999491      14.72908523
       10.86721603      17.36999491      13.21518457
       10.86721603      16.78411263      17.07705377
       10.86721603      17.36999491      17.83400410
       10.86721603      17.36999491      16.32010344
       10.86721603      16.78411263      20.18197263
       10.86721603      17.36999491      20.93892296
       10.86721603      17.36999491      19.42502231
       10.86721603      16.78411263      23.28689150
       10.86721603      17.36999491      24.04384183
       10.86721603      17.36999491      22.52994117
       10.86721603      19.88903150       1.55245943
       10.86721603      20.47491377       2.30940976
       10.86721603      20.47491377       0.79550911
       10.86721603      19.88903150       4.65737830
       10.86721603      20.47491377       5.41432863
       10.86721603      20.47491377       3.90042797
       10.86721603      19.88903150       7.76229717
       10.86721603      20.47491377       8.51924749
       10.86721603      20.47491377       7.00534684
       10.86721603      19.88903150      10.86721603
       10.86721603      20.47491377      11.62416636
       10.86721603      20.47491377      10.11026571
       10.86721603      19.88903150      13.97213490
       10.86721603      20.47491377      14.72908523
       10.86721603      20.47491377      13.21518457
       10.86721603      19.88903150      17.07705377
       10.86721603      20.47491377      17.83400410
       10.86721603      20.47491377      16.32010344
       10.86721603      19.88903150      20.18197263
       10.86721603      20.47491377      20.93892296
       10.86721603      20.47491377      19.42502231
       10.86721603      19.88903150      23.28689150
       10.86721603      20.47491377      24.04384183
       10.86721603      20.47491377      22.52994117
       10.86721603      22.99395036       1.55245943
       10.86721603      23.57983264       2.30940976
       10.86721603      23.57983264       0.79550911
       10.86721603      22.99395036       4.65737830
       10.86721603      23.57983264       5.41432863
       10.86721603      23.57983264       3.90042797
       10.86721603      22.99395036       7.76229717
       10.86721603      23.57983264       8.51924749
       10.86721603      23.57983264       7.00534684
       10.86721603      22.99395036      10.86721603
       10.86721603      23.57983264      11.62416636
       10.86721603      23.57983264      10.11026571
       10.86721603      22.99395036      13.97213490
       10.86721603      23.57983264      14.72908523
       10.86721603      23.57983264      13.21518457
       10.86721603      22.99395036      17.07705377
       10.86721603      23.57983264      17.83400410
       10.86721603      23.57983264      16.32010344
       10.86721603      22.99395036      20.18197263
       10.86721603      23.57983264      20.93892296
       10.86721603      23.57983264      19.42502231
       10.86721603      22.99395036      23.28689150
       10.86721603      23.57983264      24.04384183
       10.86721603      23.57983264      22.52994117
       13.97213490       1.25951830       1.55245943
       13.97213490       1.84540057       2.30940976
       13.97213490       1.84540057       0.79550911
       13.97213490       1.25951830       4.65737830
       13.97213490       1.84540057       5.41432863
       13.97213490       1.84540057       3.90042797
       13.97213490       1.25951830       7.76229717
       13.97213490       1.84540057       8.51924749
       13.97213490       1.84540057       7.00534684
       13.97213490       1.25951830      10.86721603
       13.97213490       1.84540057      11.62416636
       13.97213490       1.84540057      10.11026571
       13.97213490       1.25951830      13.97213490
       13.97213490       1.84540057      14.72908523
       13.97213490       1.84540057      13.21518457
       13.97213490       1.25951830      17.07705377
       13.97213490       1.84540057      17.83400410
       13.97213490       1.84540057      16.32010344
       13.97213490       1.25951830      20.18197263
       13.97213490       1.84540057      20.93892296
       13.97213490       1.84540057      19.42502231
       13.97213490       1.25951830      23.28689150
       13.97213490       1.84540057      24.04384183
       13.97213490       1.84540057      22.52994117
       13.97213490       4.36443716       1.55245943
       13.97213490       4.95031944       2.30940976
       13.97213490       4.95031944       0.79550911
       13.97213490       4.36443716       4.65737830
       13.97213490       4.95031944       5.41432863
       13.97213490       4.95031944       3.90042797
       13.97213490       4.36443716       7.76229717
       13.97213490       4.95031944       8.51924749
       13.97213490       4.95031944       7.00534684
       13.97213490       4.36443716      10.86721603
       13.97213490       4.95031944      11.62416636
       13.97213490       4.95031944      10.11026571
       13.97213490       4.36443716      13.97213490
       13.97213490       4.95031944      14.72908523
       13.97213490       4.95031944      13.21518457
       13.97213490       4.36443716      17.07705377
       13.97213490       4.95031944      17.83400410
       13.97213490       4.95031944      16.32010344
       13.97213490       4.36443716      20.18197263
       13.97213490       4.95031944      20.93892296
       13.97213490       4.95031944      19.42502231
       13.97213490       4.36443716      23.28689150
       13.97213490       4.95031944      24.04384183
       13.97213490       4.95031944      22.52994117
       13.97213490       7.46935603       1.55245943
       13.97213490       8.05523831       2.30940976
       13.97213490       8.05523831       0.79550911
       13.97213490       7.46935603       4.65737830
       13.97213490       8.05523831       5.41432863
       13.97213490       8.05523831       3.90042797
       13.97213490       7.46935603       7.76229717
       13.97213490       8.05523831       8.51924749
       13.97213490       8.05523831       7.00534684
       13.97213490       7.46935603      10.86721603
       13.97213490       8.05523831      11.62416636
       13.97213490       8.05523831      10.11026571
       13.97213490       7.46935603      13.97213490
       13.97213490       8.05523831      14.72908523
       13.97213490       8.05523831      13.21518457
       13.97213490       7.46935603      17.07705377
       13.97213490       8.05523831      17.83400410
       13.97213490       8.05523831      16.32010344
       13.97213490       7.46935603      20.18197263
       13.97213490       8.05523831      20.93892296
       13.97213490       8.05523831      19.42502231
       13.97213490       7.46935603      23.28689150
       13.97213490       8.05523831      24.04384183
       13.97213490       8.05523831      22.52994117
       13.97213490      10.57427490       1.55245943
       13.97213490      11.16015717       2.30940976
       13.97213490      11.16015717       0.79550911
       13.97213490      10.57427490       4.65737830
       13.97213490      11.16015717       5.41432863
       13.97213490      11.16015717       3.90042797
       13.97213490      10.57427490       7.76229717
       13.97213490      11.16015717       8.51924749
       13.97213490      11.16015717       7.00534684
       13.97213490      10.57427490      10.86721603
       13.97213490      11.16015717      11.62416636
       13.97213490      11.16015717      10.11026571
       13.97213490      10.57427490      13.97213490
       13.97213490      11.16015717      14.72908523
       13.97213490      11.16015717      13.21518457
       13.97213490      10.57427490      17.07705377
       13.97213490      11.16015717      17.83400410
       13.97213490      11.16015717      16.32010344
       13.97213490      10.57427490      20.18197263
       13.97213490      11.16015717      20.93892296
       13.97213490      11.16015717      19.42502231
       13.97213490      10.57427490      23.28689150
       13.97213490      11.16015717      24.04384183
       13.97213490      11.16015717      22.52994117
       13.97213490      13.67919376       1.55245943
       13.97213490      14.26507604       2.30940976
       13.97213490      14.26507604       0.79550911
       13.97213490      13.67919376       4.65737830
       13.97213490      14.26507604       5.41432863
       13.97213490      14.26507604       3.90042797
       13.97213490      13.67919376       7.76229717
       13.97213490      14.26507604       8.51924749
       13.97213490      14.26507604       7.00534684
       13.97213490      13.67919376      10.86721603
       13.97213490      14.26507604      11.62416636
       13.97213490      14.26507604      10.11026571
       13.97213490      13.67919376      13.97213490
       13.97213490      14.26507604      14.72908523
       13.97213490      14.26507604      13.21518457
       13.97213490      13.67919376      17.07705377
       13.97213490      14.26507604      17.83400410
       13.97213490      14.26507604      16.32010344
       13.97213490      13.67919376      20.18197263
       13.97213490      14.26507604      20.93892296
       13.97213490      14.26507604      19.42502231
       13.97213490      13.67919376      23.28689150
       13.97213490      14.26507604      24.04384183
       13.97213490      14.26507604      22.52994117
       13.97213490      16.78411263       1.55245943
       13.97213490      17.36999491       2.30940976
       13.97213490      17.36999491       0.79550911
       13.97213490      16.78411263       4.65737830
       13.97213490      17.36999491       5.41432863
       13.97213490      17.36999491       3.90042797
       13.97213490      16.78411263       7.76229717
       13.97213490      17.36999491       8.51924749
       13.97213490      17.36999491       7.00534684
       13.97213490      16.78411263      10.86721603
       13.97213490      17.36999491      11.62416636
       13.97213490      17.36999491      10.11026571
       13.97213490      16.78411263      13.97213490
       13.97213490      17.36999491      14.72908523
       13.97213490      17.36999491      13.21518457
       13.97213490      16.78411263      17.07705377
       13.97213490      17.36999491      17.83400410
       13.97213490      17.36999491      16.32010344
       13.97213490      16.78411263      20.18197263
       13.97213490      17.36999491      20.93892296
       13.97213490      17.36999491      19.42502231
       13.97213490      16.78411263      23.28689150
       13.97213490      17.36999491      24.04384183
       13.97213490      17.36999491      22.52994117
       13.97213490      19.88903150       1.55245943
       13.97213490      20.47491377       2.30940976
       13.97213490      20.47491377       0.79550911
       13.97213490      19.88903150       4.65737830
       13.97213490      20.47491377       5.41432863
       13.97213490      20.47491377       3.90042797
       13.97213490      19.88903150       7.76229717
       13.97213490      20.47491377       8.51924749
       13.97213490      20.47491377       7.00534684
       13.97213490      19.88903150      10.86721603
       13.97213490      20.47491377      11.62416636
       13.97213490      20.47491377      10.11026571
       13.97213490      19.88903150      13.97213490
       13.97213490      20.47491377      14.72908523
       13.97213490      20.47491377      13.21518457
       13.97213490      19.88903150      17.07705377
       13.97213490      20.47491377      17.83400410
       13.97213490      20.47491377      16.32010344
       13.97213490      19.88903150      20.18197263
       13.97213490      20.47491377      20.93892296
       13.97213490      20.47491377      19.42502231
       13.97213490      19.88903150      23.28689150
       13.97213490      20.47491377      24.04384183
       13.97213490      20.47491377      22.52994117
       13.97213490      22.99395036       1.55245943
       13.97213490      23.57983264       2.30940976
       13.97213490      23.57983264       0.79550911
       13.97213490      22.99395036       4.65737830
       13.97213490      23.57983264       5.41432863
       13.97213490      23.57983264       3.90042797
       13.97213490      22.99395036       7.76229717
       13.97213490      23.57983264       8.51924749
       13.97213490      23.57983264       7.00534684
       13.97213490      22.99395036      10.86721603
       13.97213490      23.57983264      11.62416636
       13.97213490      23.57983264      10.11026571
       13.97213490      22.99395036      13.97213490
       13.97213490      23.57983264      14.72908523
       13.97213490      23.57983264      13.21518457
       13.97213490      22.99395036      17.07705377
       13.97213490      23.57983264      17.83400410
       13.97213490      23.57983264      16.32010344
       13.97213490      22.99395036      20.18197263
       13.97213490      23.57983264      20.93892296
       13.97213490      23.57983264      19.42502231
       13.97213490      22.99395036      23.28689150
       13.97213490      23.57983264      24.04384183
       13.97213490      23.57983264      22.52994117
       17.07705377       1.25951830       1.55245943
       17.07705377       1.84540057       2.30940976
       17.07705377       1.84540057       0.79550911
       17.07705377       1.25951830       4.65737830
       17.07705377       1.84540057       5.41432863
       17.07705377       1.84540057       3.90042797
       17.07705377       1.25951830       7.76229717
       17.07705377       1.84540057       8.51924749
       17.07705377       1.84540057       7.00534684
       17.07705377       1.25951830      10.86721603
       17.07705377       1.84540057      11.62416636
       17.07705377       1.84540057      10.11026571
       17.07705377       1.25951830      13.97213490
       17.07705377       1.84540057      14.72908523
       17.07705377       1.84540057      13.21518457
       17.07705377       1.25951830      17.07705377
       17.07705377       1.84540057      17.83400410
       17.07705377       1.84540057      16.32010344
       17.07705377       1.25951830      20.18197263
       17.07705377       1.84540057      20.93892296
       17.07705377       1.84540057      19.42502231
       17.07705377       1.25951830      23.28689150
       17.07705377       1.84540057      24.04384183
       17.07705377       1.84540057      22.52994117
       17.07705377       4.36443716       1.55245943
       17.07705377       4.95031944       2.30940976
       17.07705377       4.95031944       0.79550911
       17.07705377       4.36443716       4.65737830
       17.07705377       4.95031944       5.41432863
       17.07705377       4.95031944       3.90042797
       17.07705377       4.36443716       7.76229717
       17.07705377       4.95031944       8.51924749
       17.07705377       4.95031944       7.00534684
       17.07705377       4.36443716      10.86721603
       17.07705377       4.95031944      11.62416636
       17.07705377       4.95031944      10.11026571
       17.07705377       4.36443716      13.97213490
       17.07705377       4.95031944      14.72908523
       17.07705377       4.95031944      13.21518457
       17.07705377       4.36443716      17.07705377
       17.07705377       4.95031944      17.83400410
       17.07705377       4.95031944      16.32010344
       17.07705377       4.36443716      20.18197263
       17.07705377       4.95031944      20.93892296
       17.07705377       4.95031944      19.42502231
       17.07705377       4.36443716      23.28689150
       17.07705377       4.95031944      24.04384183
       17.07705377       4.95031944      22.52994117
       17.07705377       7.46935603       1.55245943
       17.07705377       8.05523831       2.30940976
       17.07705377       8.05523831       0.79550911
       17.07705377       7.46935603       4.65737830
       17.07705377       8.05523831       5.41432863
       17.07705377       8.05523831       3.90042797
       17.07705377       7.46935603       7.76229717
       17.07705377       8.05523831       8.51924749
       17.07705377       8.05523831       7.00534684
       17.07705377       7.46935603      10.86721603
       17.07705377       8.05523831      11.62416636
       17.07705377       8.05523831      10.11026571
       17.07705377       7.46935603      13.97213490
       17.07705377       8.05523831      14.72908523
       17.07705377       8.05523831      13.21518457
       17.07705377       7.46935603      17.07705377
       17.07705377       8.05523831      17.83400410
       17.07705377       8.05523831      16.32010344
       17.07705377       7.46935603      20.18197263
       17.07705377       8.05523831      20.93892296
       17.07705377       8.05523831      19.42502231
       17.07705377       7.46935603      23.28689150
       17.07705377       8.05523831      24.04384183
       17.07705377       8.05523831      22.52994117
       17.07705377      10.57427490       1.55245943
       17.07705377      11.16015717       2.30940976
       17.07705377      11.16015717       0.79550911
       17.07705377      10.57427490       4.65737830
       17.07705377      11.16015717       5.41432863
       17.07705377      11.16015717       3.90042797
       17.07705377      10.57427490       7.76229717
       17.07705377      11.16015717       8.51924749
       17.07705377      11.16015717       7.00534684
       17.07705377      10.57427490      10.86721603
       17.07705377      11.16015717      11.62416636
       17.07705377      11.16015717      10.11026571
       17.07705377      10.57427490      13.97213490
       17.07705377      11.16015717      14.72908523
       17.07705377      11.16015717      13.21518457
       17.07705377      10.57427490      17.07705377
       17.07705377      11.16015717      17.83400410
       17.07705377      11.16015717      16.32010344
       17.07705377      10.57427490      20.18197263
       17.07705377      11.16015717      20.93892296
       17.07705377      11.16015717      19.42502231
       17.07705377      10.57427490      23.28689150
       17.07705377      11.16015717      24.04384183
       17.07705377      11.16015717      22.52994117
       17.07705377      13.67919376       1.55245943
       17.07705377      14.26507604       2.30940976
       17.07705377      14.26507604       0.79550911
       17.07705377      13.67919376       4.65737830
       17.07705377      14.26507604       5.41432863
       17.07705377      14.26507604       3.90042797
       17.07705377      13.67919376       7.76229717
       17.07705377      14.26507604       8.51924749
       17.07705377      14.26507604       7.00534684
       17.07705377      13.67919376      10.86721603
       17.07705377      14.26507604      11.62416636
       17.07705377      14.26507604      10.11026571
       17.07705377      13.67919376      13.97213490
       17.07705377      14.26507604      14.72908523
       17.07705377      14.26507604      13.21518457
       17.07705377      13.67919376      17.07705377
       17.07705377      14.26507604      17.83400410
       17.07705377      14.26507604      16.32010344
       17.07705377      13.67919376      20.18197263
       17.07705377      14.26507604      20.93892296
       17.07705377      14.26507604      19.42502231
       17.07705377      13.67919376      23.28689150
       17.07705377      14.26507604      24.04384183
       17.07705377      14.26507604      22.52994117
       17.07705377      16.78411263       1.55245943
       17.07705377      17.36999491       2.30940976
       17.07705377      17.36999491       0.79550911
       17.07705377      16.78411263       4.65737830
       17.07705377      17.36999491       5.41432863
       17.07705377      17.36999491       3.90042797
       17.07705377      16.78411263       7.76229717
       17.07705377      17.36999491       8.51924749
       17.07705377      17.36999491       7.00534684
       17.07705377      16.78411263      10.86721603
       17.07705377      17.36999491      11.62416636
       17.07705377      17.36999491      10.11026571
       17.07705377      16.78411263      13.97213490
       17.07705377      17.36999491      14.72908523
       17.07705377      17.36999491      13.21518457
       17.07705377      16.78411263      17.07705377
       17.07705377      17.36999491      17.83400410
       17.07705377      17.36999491      16.32010344
       17.07705377      16.78411263      20.18197263
       17.07705377      17.36999491      20.93892296
       17.07705377      17.36999491      19.42502231
       17.07705377      16.78411263      23.28689150
       17.07705377      17.36999491      24.04384183
       17.07705377      17.36999491      22.52994117
       17.07705377      19.88903150       1.55245943
       17.07705377      20.47491377       2.30940976
       17.07705377      20.47491377       0.79550911
       17.07705377      19.88903150       4.65737830
       17.07705377      20.47491377       5.41432863
       17.07705377      20.47491377       3.90042797
       17.07705377      19.88903150       7.76229717
       17.07705377      20.47491377       8.51924749
       17.07705377      20.47491377       7.00534684
       17.07705377      19.88903150      10.86721603
       17.07705377      20.47491377      11.62416636
       17.07705377      20.47491377      10.11026571
       17.07705377      19.88903150      13.97213490
       17.07705377      20.47491377      14.72908523
       17.07705377      20.47491377      13.21518457
       17.07705377      19.88903150      17.07705377
       17.07705377      20.47491377      17.83400410
       17.07705377      20.47491377      16.32010344
       17.07705377      19.88903150      20.18197263
       17.07705377      20.47491377      20.93892296
       17.07705377      20.47491377      19.42502231
       17.07705377      19.88903150      23.28689150
       17.07705377      20.47491377      24.04384183
       17.07705377      20.47491377      22.52994117
       17.07705377      22.99395036       1.55245943
       17.07705377      23.57983264       2.30940976
       17.07705377      23.57983264       0.79550911
       17.07705377      22.99395036       4.65737830
       17.07705377      23.57983264       5.41432863
       17.07705377      23.57983264       3.90042797
       17.07705377      22.99395036       7.76229717
       17.07705377      23.57983264       8.51924749
       17.07705377      23.57983264       7.00534684
       17.07705377      22.99395036      10.86721603
       17.07705377      23.57983264      11.62416636
       17.07705377      23.57983264      10.11026571
       17.07705377      22.99395036      13.97213490
       17.07705377      23.57983264      14.72908523
       17.07705377      23.57983264      13.21518457
       17.07705377      22.99395036      17.07705377
       17.07705377      23.57983264      17.83400410
       17.07705377      23.57983264      16.32010344
       17.07705377      22.99395036      20.18197263
       17.07705377      23.57983264      20.93892296
       17.07705377      23.57983264      19.42502231
       17.07705377      22.99395036      23.28689150
       17.07705377      23.57983264      24.04384183
       17.07705377      23.57983264      22.52994117
       20.18197263       1.25951830       1.55245943
       20.18197263       1.84540057       2.30940976
       20.18197263       1.84540057       0.79550911
       20.18197263       1.25951830       4.65737830
       20.18197263       1.84540057       5.41432863
       20.18197263       1.84540057       3.90042797
       20.18197263       1.25951830       7.76229717
       20.18197263       1.84540057       8.51924749
       20.18197263       1.84540057       7.00534684
       20.18197263       1.25951830      10.86721603
       20.18197263       1.84540057      11.62416636
       20.18197263       1.84540057      10.11026571
       20.18197263       1.25951830      13.97213490
       20.18197263       1.84540057      14.72908523
       20.18197263       1.84540057      13.21518457
       20.18197263       1.25951830      17.07705377
       20.18197263       1.84540057      17.83400410
       20.18197263       1.84540057      16.32010344
       20.18197263       1.25951830      20.18197263
       20.18197263       1.84540057      20.93892296
       20.18197263       1.84540057      19.42502231
       20.18197263       1.25951830      23.28689150
       20.18197263       1.84540057      24.04384183
       20.18197263       1.84540057      22.52994117
       20.18197263       4.36443716       1.55245943
       20.18197263       4.95031944       2.30940976
       20.18197263       4.95031944       0.79550911
       20.18197263       4.36443716       4.65737830
       20.18197263       4.95031944       5.41432863
       20.18197263       4.95031944       3.90042797
       20.18197263       4.36443716       7.76229717
       20.18197263       4.95031944       8.51924749
       20.18197263       4.95031944       7.00534684
       20.18197263       4.36443716      10.86721603
       20.18197263       4.95031944      11.62416636
       20.18197263       4.95031944      10.11026571
       20.18197263       4.36443716      13.97213490
       20.18197263       4.95031944      14.72908523
       20.18197263       4.95031944      13.21518457
       20.18197263       4.36443716      17.07705377
       20.18197263       4.95031944      17.83400410
       20.18197263       4.95031944      16.32010344
       20.18197263       4.36443716      20.18197263
       20.18197263       4.95031944      20.93892296
       20.18197263       4.95031944      19.42502231
       20.18197263       4.36443716      23.28689150
       20.18197263       4.95031944      24.04384183
       20.18197263       4.95031944      22.52994117
       20.18197263       7.46935603       1.55245943
       20.18197263       8.05523831       2.30940976
       20.18197263       8.05523831       0.79550911
       20.18197263       7.46935603       4.65737830
       20.18197263       8.05523831       5.41432863
       20.18197263       8.05523831       3.90042797
       20.18197263       7.46935603       7.76229717
       20.18197263       8.05523831       8.51924749
       20.18197263       8.05523831       7.00534684
       20.18197263       7.46935603      10.86721603
       20.18197263       8.05523831      11.62416636
       20.18197263       8.05523831      10.11026571
       20.18197263       7.46935603      13.97213490
       20.18197263       8.05523831      14.72908523
       20.18197263       8.05523831      13.21518457
       20.18197263       7.46935603      17.07705377
       20.18197263       8.05523831      17.83400410
       20.18197263       8.05523831      16.32010344
       20.18197263       7.46935603      20.18197263
       20.18197263       8.05523831      20.93892296
       20.18197263       8.05523831      19.42502231
       20.18197263       7.46935603      23.28689150
       20.18197263       8.05523831      24.04384183
       20.18197263       8.05523831      22.52994117
       20.18197263      10.57427490       1.55245943
       20.18197263      11.16015717       2.30940976
       20.18197263      11.16015717       0.79550911
       20.18197263      10.57427490       4.65737830
       20.18197263      11.16015717       5.41432863
       20.18197263      11.16015717       3.90042797
       20.18197263      10.57427490       7.76229717
       20.18197263      11.16015717       8.51924749
       20.18197263      11.16015717       7.00534684
       20.18197263      10.57427490      10.86721603
       20.18197263      11.16015717      11.62416636
       20.18197263      11.16015717      10.11026571
       20.18197263      10.57427490      13.97213490
       20.18197263      11.16015717      14.72908523
       20.18197263      11.16015717      13.21518457
       20.18197263      10.57427490      17.07705377
       20.18197263      11.16015717      17.83400410
       20.18197263      11.16015717      16.32010344
       20.18197263      10.57427490      20.18197263
       20.18197263      11.16015717      20.93892296
       20.18197263      11.16015717      19.42502231
       20.18197263      10.57427490      23.28689150
       20.18197263      11.16015717      24.04384183
       20.18197263      11.16015717      22.52994117
       20.18197263      13.67919376       1.55245943
       20.18197263      14.26507604       2.30940976
       20.18197263      14.26507604       0.79550911
       20.18197263      13.67919376       4.65737830
       20.18197263      14.26507604       5.41432863
       20.18197263      14.26507604       3.90042797
       20.18197263      13.67919376       7.76229717
       20.18197263      14.26507604       8.51924749
       20.18197263      14.26507604       7.00534684
       20.18197263      13.67919376      10.86721603
       20.18197263      14.26507604      11.62416636
       20.18197263      14.26507604      10.11026571
       20.18197263      13.67919376      13.97213490
       20.18197263      14.26507604      14.72908523
       20.18197263      14.26507604      13.21518457
       20.18197263      13.67919376      17.07705377
       20.18197263      14.26507604      17.83400410
       20.18197263      14.26507604      16.32010344
       20.18197263      13.67919376      20.18197263
       20.18197263      14.26507604      20.93892296
       20.18197263      14.26507604      19.42502231
       20.18197263      13.67919376      23.28689150
       20.18197263      14.26507604      24.04384183
       20.18197263      14.26507604      22.52994117
       20.18197263      16.78411263       1.55245943
       20.18197263      17.36999491       2.30940976
       20.18197263      17.36999491       0.79550911
       20.18197263      16.78411263       4.65737830
       20.18197263      17.36999491       5.41432863
       20.18197263      17.36999491       3.90042797
       20.18197263      16.78411263       7.76229717
       20.18197263      17.36999491       8.51924749
       20.18197263      17.36999491       7.00534684
       20.18197263      16.78411263      10.86721603
       20.18197263      17.36999491      11.62416636
       20.18197263      17.36999491      10.11026571
       20.18197263      16.78411263      13.97213490
       20.18197263      17.36999491      14.72908523
       20.18197263      17.36999491      13.21518457
       20.18197263      16.78411263      17.07705377
       20.18197263      17.36999491      17.83400410
       20.18197263      17.36999491      16.32010344
       20.18197263      16.78411263      20.18197263
       20.18197263      17.36999491      20.93892296
       20.18197263      17.36999491      19.42502231
       20.18197263      16.78411263      23.28689150
       20.18197263      17.36999491      24.04384183
       20.18197263      17.36999491      22.52994117
       20.18197263      19.88903150       1.55245943
       20.18197263      20.47491377       2.30940976
       20.18197263      20.47491377       0.79550911
       20.18197263      19.88903150       4.65737830
       20.18197263      20.47491377       5.41432863
       20.18197263      20.47491377       3.90042797
       20.18197263      19.88903150       7.76229717
       20.18197263      20.47491377       8.51924749
       20.18197263      20.47491377       7.00534684
       20.18197263      19.88903150      10.86721603
       20.18197263      20.47491377      11.62416636
       20.18197263      20.47491377      10.11026571
       20.18197263      19.88903150      13.97213490
       20.18197263      20.47491377      14.72908523
       20.18197263      20.47491377      13.21518457
       20.18197263      19.88903150      17.07705377
       20.18197263      20.47491377      17.83400410
       20.18197263      20.47491377      16.32010344
       20.18197263      19.88903150      20.18197263
       20.18197263      20.47491377      20.93892296
       20.18197263      20.47491377      19.42502231
       20.18197263      19.88903150      23.28689150
       20.18197263      20.47491377      24.04384183
       20.18197263      20.47491377      22.52994117
       20.18197263      22.99395036       1.55245943
       20.18197263      23.57983264       2.30940976
       20.18197263      23.57983264       0.79550911
       20.18197263      22.99395036       4.65737830
       20.18197263      23.57983264       5.41432863
       20.18197263      23.57983264       3.90042797
       20.18197263      22.99395036       7.76229717
       20.18197263      23.57983264       8.51924749
       20.18197263      23.57983264       7.00534684
       20.18197263      22.99395036      10.86721603
       20.18197263      23.57983264      11.62416636
       20.18197263      23.57983264      10.11026571
       20.18197263      22.99395036      13.97213490
       20.18197263      23.57983264      14.72908523
       20.18197263      23.57983264      13.21518457
       20.18197263      22.99395036      17.07705377
       20.18197263      23.57983264      17.83400410
       20.18197263      23.57983264      16.32010344
       20.18197263      22.99395036      20.18197263
       20.18197263      23.57983264      20.93892296
       20.18197263      23.57983264      19.42502231
       20.18197263      22.99395036      23.28689150
       20.18197263      23.57983264      24.04384183
       20.18197263      23.57983264      22.52994117
       23.28689150       1.25951830       1.55245943
       23.28689150       1.84540057       2.30940976
       23.28689150       1.84540057       0.79550911
       23.28689150       1.25951830       4.65737830
       23.28689150       1.84540057       5.41432863
       23.28689150       1.84540057       3.90042797
       23.28689150       1.25951830       7.76229717
       23.28689150       1.84540057       8.51924749
       23.28689150       1.84540057       7.00534684
       23.28689150       1.25951830      10.86721603
       23.28689150       1.84540057      11.62416636
       23.28689150       1.84540057      10.11026571
       23.28689150       1.25951830      13.97213490
       23.28689150       1.84540057      14.72908523
       23.28689150       1.84540057      13.21518457
       23.28689150       1.25951830      17.07705377
       23.28689150       1.84540057      17.83400410
       23.28689150       1.84540057      16.32010344
       23.28689150       1.25951830      20.18197263
       23.28689150       1.84540057      20.93892296
       23.28689150       1.84540057      19.42502231
       23.28689150       1.25951830      23.28689150
       23.28689150       1.84540057      24.04384183
       23.28689150       1.84540057      22.52994117
       23.28689150       4.36443716       1.55245943
       23.28689150       4.95031944       2.30940976
       23.28689150       4.95031944       0.79550911
       23.28689150       4.36443716       4.65737830
       23.28689150       4.95031944       5.41432863
       23.28689150       4.95031944       3.90042797
       23.28689150       4.36443716       7.76229717
       23.28689150       4.95031944       8.51924749
       23.28689150       4.95031944       7.00534684
       23.28689150       4.36443716      10.86721603
       23.28689150       4.95031944      11.62416636
       23.28689150       4.95031944      10.11026571
       23.28689150       4.36443716      13.97213490
       23.28689150       4.95031944      14.72908523
       23.28689150       4.95031944      13.21518457
       23.28689150       4.36443716      17.07705377
       23.28689150       4.95031944      17.83400410
       23.28689150       4.95031944      16.32010344
       23.28689150       4.36443716      20.18197263
       23.28689150       4.95031944      20.93892296
       23.28689150       4.95031944      19.42502231
       23.28689150       4.36443716      23.28689150
       23.28689150       4.95031944      24.04384183
       23.28689150       4.95031944      22.52994117
       23.28689150       7.46935603       1.55245943
       23.28689150       8.05523831       2.30940976
       23.28689150       8.05523831       0.79550911
       23.28689150       7.46935603       4.65737830
       23.28689150       8.05523831       5.41432863
       23.28689150       8.05523831       3.90042797
       23.28689150       7.46935603       7.76229717
       23.28689150       8.05523831       8.51924749
       23.28689150       8.05523831       7.00534684
       23.28689150       7.46935603      10.86721603
       23.28689150       8.05523831      11.62416636
       23.28689150       8.05523831      10.11026571
       23.28689150       7.46935603      13.97213490
       23.28689150       8.05523831      14.72908523
       23.28689150       8.05523831      13.21518457
       23.28689150       7.46935603      17.07705377
       23.28689150       8.05523831      17.83400410
       23.28689150       8.05523831      16.32010344
       23.28689150       7.46935603      20.18197263
       23.28689150       8.05523831      20.93892296
       23.28689150       8.05523831      19.42502231
       23.28689150       7.46935603      23.28689150
       23.28689150       8.05523831      24.04384183
       23.28689150       8.05523831      22.52994117
       23.28689150      10.57427490       1.55245943
       23.28689150      11.16015717       2.30940976
       23.28689150      11.16015717       0.79550911
       23.28689150      10.57427490       4.65737830
       23.28689150      11.16015717       5.41432863
       23.28689150      11.16015717       3.90042797
       23.28689150      10.57427490       7.76229717
       23.28689150      11.16015717       8.51924749
       23.28689150      11.16015717       7.00534684
       23.28689150      10.57427490      10.86721603
       23.28689150      11.16015717      11.62416636
       23.28689150      11.16015717      10.11026571
       23.28689150      10.57427490      13.97213490
       23.28689150      11.16015717      14.72908523
       23.28689150      11.16015717      13.21518457
       23.28689150      10.57427490      17.07705377
       23.28689150      11.16015717      17.83400410
       23.28689150      11.16015717      16.32010344
       23.28689150      10.57427490      20.18197263
       23.28689150      11.16015717      20.93892296
       23.28689150      11.16015717      19.42502231
       23.28689150      10.57427490      23.28689150
       23.28689150      11.16015717      24.04384183
       23.28689150      11.16015717      22.52994117
       23.28689150      13.67919376       1.55245943
       23.28689150      14.26507604       2.30940976
       23.28689150      14.26507604       0.79550911
       23.28689150      13.67919376       4.65737830
       23.28689150      14.26507604       5.41432863
       23.28689150      14.26507604       3.90042797
       23.28689150      13.67919376       7.76229717
       23.28689150      14.26507604       8.51924749
       23.28689150      14.26507604       7.00534684
       23.28689150      13.67919376      10.86721603
       23.28689150      14.26507604      11.62416636
       23.28689150      14.26507604      10.11026571
       23.28689150      13.67919376      13.97213490
       23.28689150      14.26507604      14.72908523
       23.28689150      14.26507604      13.21518457
       23.28689150      13.67919376      17.07705377
       23.28689150      14.26507604      17.83400410
       23.28689150      14.26507604      16.32010344
       23.28689150      13.67919376      20.18197263
       23.28689150      14.26507604      20.93892296
       23.28689150      14.26507604      19.42502231
       23.28689150      13.67919376      23.28689150
       23.28689150      14.26507604      24.04384183
       23.28689150      14.26507604      22.52994117
       23.28689150      16.78411263       1.55245943
       23.28689150      17.36999491       2.30940976
       23.28689150      17.36999491       0.79550911
       23.28689150      16.78411263       4.65737830
       23.28689150      17.36999491       5.41432863
       23.28689150      17.36999491       3.90042797
       23.28689150      16.78411263       7.76229717
       23.28689150      17.36999491       8.51924749
       23.28689150      17.36999491       7.00534684
       23.28689150      16.78411263      10.86721603
       23.28689150      17.36999491      11.62416636
       23.28689150      17.36999491      10.11026571
       23.28689150      16.78411263      13.97213490
       23.28689150      17.36999491      14.72908523
       23.28689150      17.36999491      13.21518457
       23.28689150      16.78411263      17.07705377
       23.28689150      17.36999491      17.83400410
       23.28689150      17.36999491      16.32010344
       23.28689150      16.78411263      20.18197263
       23.28689150      17.36999491      20.93892296
       23.28689150      17.36999491      19.42502231
       23.28689150      16.78411263      23.28689150
       23.28689150      17.36999491      24.04384183
       23.28689150      17.36999491      22.52994117
       23.28689150      19.88903150       1.55245943
       23.28689150      20.47491377       2.30940976
       23.28689150      20.47491377       0.79550911
       23.28689150      19.88903150       4.65737830
       23.28689150      20.47491377       5.41432863
